# .PCD v0.7 - Point Cloud Data file format
VERSION 0.7
FIELDS x y z
SIZE 4 4 4
TYPE F F F
COUNT 1 1 1
WIDTH 1524
HEIGHT 1
VIEWPOINT 0 0 0 1 0 0 0
POINTS 1524
DATA ascii
0.29700714 -0.30239245 1.069
0.29882306 -0.30239245 1.069
0.30063897 -0.30239245 1.069
0.30245489 -0.30239245 1.069
0.30427083 -0.30239245 1.069
0.30608675 -0.30239245 1.069
0.30790266 -0.30239245 1.069
0.30971861 -0.30239245 1.069
0.31153452 -0.30239245 1.069
0.31422982 -0.30324107 1.072
0.31605086 -0.30324107 1.072
0.31787187 -0.30324107 1.072
0.31969288 -0.30324107 1.072
0.32061416 -0.30239245 1.069
0.32333493 -0.30324107 1.072
0.32424599 -0.30239245 1.069
0.3260619 -0.30239245 1.069
0.32787785 -0.30239245 1.069
0.32969376 -0.30239245 1.069
0.33150968 -0.30239245 1.069
0.33332562 -0.30239245 1.069
0.33514154 -0.30239245 1.069
0.33695745 -0.30239245 1.069
0.33972412 -0.30324107 1.072
0.34281957 -0.30437258 1.0760001
0.34464738 -0.30437258 1.0760001
0.34647518 -0.30437258 1.0760001
0.34830302 -0.30437258 1.0760001
0.35013083 -0.30437258 1.0760001
0.35065022 -0.30324107 1.072
0.35247126 -0.30324107 1.072
0.35429227 -0.30324107 1.072
0.35744208 -0.30437258 1.0760001
0.35793433 -0.30324107 1.072
0.35975534 -0.30324107 1.072
0.36157635 -0.30324107 1.072
0.36339739 -0.30324107 1.072
0.3652184 -0.30324107 1.072
0.36703941 -0.30324107 1.072
0.37023678 -0.30437258 1.0760001
0.37206462 -0.30437258 1.0760001
0.37389243 -0.30437258 1.0760001
0.37572023 -0.30437258 1.0760001
0.37754804 -0.30437258 1.0760001
0.38043362 -0.3052212 1.079
0.38226652 -0.3052212 1.079
0.38409942 -0.3052212 1.079
0.38593236 -0.3052212 1.079
0.38776526 -0.3052212 1.079
0.38959816 -0.3052212 1.079
0.39143106 -0.3052212 1.079
0.393264 -0.3052212 1.079
0.3950969 -0.3052212 1.079
0.3969298 -0.3052212 1.079
0.39876273 -0.3052212 1.079
0.40059564 -0.3052212 1.079
0.40242854 -0.3052212 1.079
0.40426147 -0.3052212 1.079
0.40609437 -0.3052212 1.079
0.40792727 -0.3052212 1.079
0.40976018 -0.3052212 1.079
0.41159311 -0.3052212 1.079
0.41495863 -0.30635267 1.0830001
0.41679832 -0.30635267 1.0830001
0.41863805 -0.30635267 1.0830001
0.42047775 -0.30635267 1.0830001
0.43725386 -0.3052212 1.079
0.43908677 -0.3052212 1.079
0.4409197 -0.3052212 1.079
0.4427526 -0.3052212 1.079
0.44623366 -0.30635267 1.0830001
0.44807336 -0.30635267 1.0830001
0.44991305 -0.30635267 1.0830001
0.45175278 -0.30635267 1.0830001
0.45359248 -0.30635267 1.0830001
0.45543218 -0.30635267 1.0830001
0.4572719 -0.30635267 1.0830001
0.4591116 -0.30635267 1.0830001
0.46222815 -0.30720133 1.0860001
0.46279103 -0.30635267 1.0830001
0.46591777 -0.30720133 1.0860001
0.46776256 -0.30720133 1.0860001
0.46960735 -0.30720133 1.0860001
0.46841332 -0.3052212 1.079
0.47198954 -0.30635267 1.0830001
0.47382924 -0.30635267 1.0830001
0.47566897 -0.30635267 1.0830001
0.47750866 -0.30635267 1.0830001
0.47934836 -0.30635267 1.0830001
0.48118809 -0.30635267 1.0830001
0.48302779 -0.30635267 1.0830001
0.48486748 -0.30635267 1.0830001
0.48670718 -0.30635267 1.0830001
0.48854691 -0.30635267 1.0830001
0.49038661 -0.30635267 1.0830001
0.4922263 -0.30635267 1.0830001
0.49406603 -0.30635267 1.0830001
0.49590573 -0.30635267 1.0830001
0.49774542 -0.30635267 1.0830001
0.49958515 -0.30635267 1.0830001
0.50142485 -0.30635267 1.0830001
0.50326455 -0.30635267 1.0830001
0.50510424 -0.30635267 1.0830001
0.50694394 -0.30635267 1.0830001
0.5087837 -0.30635267 1.0830001
0.5106234 -0.30635267 1.0830001
0.51246309 -0.30635267 1.0830001
0.51430279 -0.30635267 1.0830001
0.51423609 -0.3052212 1.079
0.51606899 -0.3052212 1.079
0.51790196 -0.3052212 1.079
0.51973486 -0.3052212 1.079
0.52011764 -0.30437258 1.0760001
0.52194548 -0.30437258 1.0760001
0.52182615 -0.30324107 1.072
-0.52155268 -0.27808663 0.98900002
-0.51730341 -0.28033608 0.99700004
-0.51716131 -0.28117964 1
-0.51546258 -0.28117964 1
-0.48608616 -0.28286672 1.006
-0.48582169 -0.28371024 1.0090001
-0.48410767 -0.28371024 1.0090001
-0.48239368 -0.28371024 1.0090001
-0.48067969 -0.28371024 1.0090001
-0.47754163 -0.28286672 1.006
-0.47583273 -0.28286672 1.006
-0.47412381 -0.28286672 1.006
-0.47241491 -0.28286672 1.006
-0.47070602 -0.28286672 1.006
-0.46899709 -0.28286672 1.006
-0.4672882 -0.28286672 1.006
-0.4655793 -0.28286672 1.006
-0.46387038 -0.28286672 1.006
-0.46216148 -0.28286672 1.006
-0.46182567 -0.28371024 1.0090001
-0.46011168 -0.28371024 1.0090001
-0.45839766 -0.28371024 1.0090001
-0.45668367 -0.28371024 1.0090001
-0.45496967 -0.28371024 1.0090001
-0.45325565 -0.28371024 1.0090001
-0.45154166 -0.28371024 1.0090001
-0.44982764 -0.28371024 1.0090001
-0.44944602 -0.2845538 1.0120001
-0.44639966 -0.28371024 1.0090001
-0.44468567 -0.28371024 1.0090001
-0.44297168 -0.28371024 1.0090001
-0.44256964 -0.2845538 1.0120001
-0.41383365 -0.28371024 1.0090001
-0.41211966 -0.28371024 1.0090001
-0.41040564 -0.28371024 1.0090001
-0.40747651 -0.28286672 1.006
-0.40576762 -0.28286672 1.006
-0.40405869 -0.28286672 1.006
-0.4023498 -0.28286672 1.006
-0.40064088 -0.28286672 1.006
-0.40012163 -0.28371024 1.0090001
-0.39840764 -0.28371024 1.0090001
-0.39669365 -0.28371024 1.0090001
-0.39615402 -0.2845538 1.0120001
-0.3944349 -0.2845538 1.0120001
-0.39271581 -0.2845538 1.0120001
-0.39099672 -0.2845538 1.0120001
-0.38927761 -0.2845538 1.0120001
-0.38755852 -0.2845538 1.0120001
-0.38583943 -0.2845538 1.0120001
-0.38412032 -0.2845538 1.0120001
-0.38240123 -0.2845538 1.0120001
-0.37208664 -0.2845538 1.0120001
-0.37036753 -0.2845538 1.0120001
-0.36864844 -0.2845538 1.0120001
-0.36692935 -0.2845538 1.0120001
-0.36629289 -0.28539729 1.0150001
-0.36456868 -0.28539729 1.0150001
-0.3628445 -0.28539729 1.0150001
-0.36112031 -0.28539729 1.0150001
-0.3593961 -0.28539729 1.0150001
-0.35767192 -0.28539729 1.0150001
-0.35594773 -0.28539729 1.0150001
-0.33525741 -0.28539729 1.0150001
-0.3325474 -0.2845538 1.0120001
-0.33180901 -0.28539729 1.0150001
-0.33008483 -0.28539729 1.0150001
-0.32836062 -0.28539729 1.0150001
-0.32663643 -0.28539729 1.0150001
-0.32491222 -0.28539729 1.0150001
-0.32318804 -0.28539729 1.0150001
-0.32146385 -0.28539729 1.0150001
-0.3206847 -0.28624085 1.018
-0.31895539 -0.28624085 1.018
-0.31722611 -0.28624085 1.018
-0.31456706 -0.28539729 1.0150001
-0.31376752 -0.28624085 1.018
-0.31111869 -0.28539729 1.0150001
-0.30939448 -0.28539729 1.0150001
-0.3076703 -0.28539729 1.0150001
-0.30594611 -0.28539729 1.0150001
-0.3042219 -0.28539729 1.0150001
-0.30249771 -0.28539729 1.0150001
-0.30077353 -0.28539729 1.0150001
-0.29904932 -0.28539729 1.0150001
-0.29732513 -0.28539729 1.0150001
-0.29560095 -0.28539729 1.0150001
-0.29387674 -0.28539729 1.0150001
-0.29215255 -0.28539729 1.0150001
-0.29042837 -0.28539729 1.0150001
-0.26284125 -0.28539729 1.0150001
-0.26111707 -0.28539729 1.0150001
-0.26015955 -0.28624085 1.018
-0.25766867 -0.28539729 1.0150001
-0.25594449 -0.28539729 1.0150001
-0.25497168 -0.28624085 1.018
-0.2532424 -0.28624085 1.018
-0.25151309 -0.28624085 1.018
-0.24978381 -0.28624085 1.018
-0.24805452 -0.28624085 1.018
-0.24632522 -0.28624085 1.018
-0.24459594 -0.28624085 1.018
-0.20602947 -0.28792793 1.024
-0.20369148 -0.28708437 1.021
-0.20255052 -0.28792793 1.024
-0.20022272 -0.28708437 1.021
-0.19907154 -0.28792793 1.024
-0.19675395 -0.28708437 1.021
-0.19444653 -0.28624085 1.018
-0.19328517 -0.28708437 1.021
-0.19155079 -0.28708437 1.021
-0.15870669 -0.29045856 1.033
-0.15695193 -0.29045856 1.033
-0.15519716 -0.29045856 1.033
-0.15344238 -0.29045856 1.033
-0.1512471 -0.28961501 1.0300001
-0.14993285 -0.29045856 1.033
-0.14774774 -0.28961501 1.0300001
-0.1288756 -0.29045856 1.033
-0.12712082 -0.29045856 1.033
-0.12536606 -0.29045856 1.033
-0.12361129 -0.29045856 1.033
-0.12185652 -0.29045856 1.033
-0.12010175 -0.29045856 1.033
-0.11834697 -0.29045856 1.033
-0.11659221 -0.29045856 1.033
-0.11528211 -0.29158327 1.0370001
-0.10647429 -0.29158327 1.0370001
-0.10471272 -0.29158327 1.0370001
-0.10295115 -0.29158327 1.0370001
-0.10118959 -0.29158327 1.0370001
-0.09942802 -0.29158327 1.0370001
-0.097666457 -0.29158327 1.0370001
-0.095904894 -0.29158327 1.0370001
-0.094143331 -0.29158327 1.0370001
-0.09238176 -0.29158327 1.0370001
-0.090620197 -0.29158327 1.0370001
-0.088858634 -0.29158327 1.0370001
-0.087097064 -0.29158327 1.0370001
-0.085335501 -0.29158327 1.0370001
-0.083573937 -0.29158327 1.0370001
-0.081812367 -0.29158327 1.0370001
-0.080050804 -0.29158327 1.0370001
-0.078515723 -0.29242682 1.0400001
-0.07652767 -0.29158327 1.0370001
-0.074982405 -0.29242682 1.0400001
-0.073215738 -0.29242682 1.0400001
-0.071449079 -0.29242682 1.0400001
-0.069682419 -0.29242682 1.0400001
-0.067915753 -0.29242682 1.0400001
-0.066149093 -0.29242682 1.0400001
-0.064382434 -0.29242682 1.0400001
-0.062615767 -0.29242682 1.0400001
-0.060849108 -0.29242682 1.0400001
-0.059082448 -0.29242682 1.0400001
-0.057315785 -0.29242682 1.0400001
-0.055549126 -0.29242682 1.0400001
-0.053782467 -0.29242682 1.0400001
-0.052015804 -0.29242682 1.0400001
-0.050249144 -0.29242682 1.0400001
-0.048482481 -0.29242682 1.0400001
-0.046715818 -0.29242682 1.0400001
-0.0448195 -0.29158327 1.0370001
-0.043057933 -0.29158327 1.0370001
-0.041296367 -0.29158327 1.0370001
-0.039534803 -0.29158327 1.0370001
-0.037773237 -0.29158327 1.0370001
-0.03601167 -0.29158327 1.0370001
-0.034250107 -0.29158327 1.0370001
-0.032363221 -0.29045856 1.033
-0.030608451 -0.29045856 1.033
-0.028853679 -0.29045856 1.033
-0.027098911 -0.29045856 1.033
-0.025344141 -0.29045856 1.033
-0.023680711 -0.29158327 1.0370001
-0.021919146 -0.29158327 1.0370001
-0.020157581 -0.29158327 1.0370001
-0.018396016 -0.29158327 1.0370001
-0.016634449 -0.29158327 1.0370001
-0.014915911 -0.29242682 1.0400001
-0.01314925 -0.29242682 1.0400001
-0.011382588 -0.29242682 1.0400001
-0.009615927 -0.29242682 1.0400001
-0.0078492649 -0.29242682 1.0400001
-0.0060826037 -0.29242682 1.0400001
-0.0043159421 -0.29242682 1.0400001
-0.0025492806 -0.29242682 1.0400001
-0.000782619 -0.29242682 1.0400001
0.0009868812 -0.29327035 1.0430001
0.0027507041 -0.29242682 1.0400001
0.0045173657 -0.29242682 1.0400001
0.0062840274 -0.29242682 1.0400001
0.0080506885 -0.29242682 1.0400001
0.0098173507 -0.29242682 1.0400001
0.011584012 -0.29242682 1.0400001
0.013350674 -0.29242682 1.0400001
0.015117335 -0.29242682 1.0400001
0.016883997 -0.29242682 1.0400001
0.018650658 -0.29242682 1.0400001
0.02041732 -0.29242682 1.0400001
0.022183981 -0.29242682 1.0400001
0.023950644 -0.29242682 1.0400001
0.025717305 -0.29242682 1.0400001
0.027483966 -0.29242682 1.0400001
0.029250627 -0.29242682 1.0400001
0.031106764 -0.29327035 1.0430001
0.032878522 -0.29327035 1.0430001
0.034650277 -0.29327035 1.0430001
0.036422037 -0.29327035 1.0430001
0.038193796 -0.29327035 1.0430001
0.039965551 -0.29327035 1.0430001
0.041737311 -0.29327035 1.0430001
0.043509066 -0.29327035 1.0430001
0.045280825 -0.29327035 1.0430001
0.047052585 -0.29327035 1.0430001
0.04882434 -0.29327035 1.0430001
0.050596099 -0.29327035 1.0430001
0.052367855 -0.29327035 1.0430001
0.054139614 -0.29327035 1.0430001
0.05591137 -0.29327035 1.0430001
0.057683125 -0.29327035 1.0430001
0.059625898 -0.2941139 1.046
0.061402749 -0.2941139 1.046
0.063179605 -0.2941139 1.046
0.065142758 -0.29495743 1.049
0.066924706 -0.29495743 1.049
0.068706661 -0.29495743 1.049
0.070488609 -0.29495743 1.049
0.072270557 -0.29495743 1.049
0.07384073 -0.2941139 1.046
0.080715977 -0.29327035 1.0430001
0.082487732 -0.29327035 1.0430001
0.084259495 -0.29327035 1.0430001
0.24675541 -0.29692566 1.056
0.24925534 -0.29776922 1.059
0.28530866 -0.29973748 1.0660001
0.28711948 -0.29973748 1.0660001
0.2889303 -0.29973748 1.0660001
0.29074115 -0.29973748 1.0660001
0.29255196 -0.29973748 1.0660001
0.29436278 -0.29973748 1.0660001
0.29617363 -0.29973748 1.0660001
0.29798445 -0.29973748 1.0660001
0.29979527 -0.29973748 1.0660001
0.30160609 -0.29973748 1.0660001
0.30341694 -0.29973748 1.0660001
0.30522776 -0.29973748 1.0660001
0.30703858 -0.29973748 1.0660001
0.30884942 -0.29973748 1.0660001
0.31153452 -0.30058101 1.069
0.31335044 -0.30058101 1.069
0.31516638 -0.30058101 1.069
0.3169823 -0.30058101 1.069
0.31879821 -0.30058101 1.069
0.32061416 -0.30058101 1.069
0.32243007 -0.30058101 1.069
0.32424599 -0.30058101 1.069
0.3260619 -0.30058101 1.069
0.32787785 -0.30058101 1.069
0.32969376 -0.30058101 1.069
0.33150968 -0.30058101 1.069
0.33332562 -0.30058101 1.069
0.33420101 -0.29973748 1.0660001
0.33601183 -0.29973748 1.0660001
0.3387734 -0.30058101 1.069
0.34058931 -0.30058101 1.069
0.34240523 -0.30058101 1.069
0.34422117 -0.30058101 1.069
0.34603709 -0.30058101 1.069
0.347853 -0.30058101 1.069
0.34966892 -0.30058101 1.069
0.35148486 -0.30058101 1.069
0.35330078 -0.30058101 1.069
0.36782819 -0.30058101 1.069
0.37068146 -0.30142456 1.072
0.37250248 -0.30142456 1.072
0.37432349 -0.30142456 1.072
0.37614453 -0.30142456 1.072
0.37796554 -0.30142456 1.072
0.37978655 -0.30142456 1.072
0.38303149 -0.30254927 1.0760001
0.38485932 -0.30254927 1.0760001
0.38668713 -0.30254927 1.0760001
0.38851494 -0.30254927 1.0760001
0.39034277 -0.30254927 1.0760001
0.39217058 -0.30254927 1.0760001
0.39399838 -0.30254927 1.0760001
0.39582619 -0.30254927 1.0760001
0.39765403 -0.30254927 1.0760001
0.39948183 -0.30254927 1.0760001
0.40130964 -0.30254927 1.0760001
0.40313748 -0.30254927 1.0760001
0.40496528 -0.30254927 1.0760001
0.40792727 -0.30339283 1.079
0.40976018 -0.30339283 1.079
0.41159311 -0.30339283 1.079
0.41342601 -0.30339283 1.079
0.41525891 -0.30339283 1.079
0.41709185 -0.30339283 1.079
0.41892475 -0.30339283 1.079
0.42075765 -0.30339283 1.079
0.42259058 -0.30339283 1.079
0.42442349 -0.30339283 1.079
0.43725386 -0.30339283 1.079
0.43908677 -0.30339283 1.079
0.4409197 -0.30339283 1.079
0.4427526 -0.30339283 1.079
0.4445855 -0.30339283 1.079
0.4464184 -0.30339283 1.079
0.44825131 -0.30339283 1.079
0.45008421 -0.30339283 1.079
0.45191711 -0.30339283 1.079
0.45543218 -0.30451754 1.0830001
0.4572719 -0.30451754 1.0830001
0.4591116 -0.30451754 1.0830001
0.4609513 -0.30451754 1.0830001
0.46279103 -0.30451754 1.0830001
0.46463072 -0.30451754 1.0830001
0.46474752 -0.30339283 1.079
0.46658042 -0.30339283 1.079
0.46841332 -0.30339283 1.079
0.47024623 -0.30339283 1.079
0.47207916 -0.30339283 1.079
0.47391206 -0.30339283 1.079
0.47574496 -0.30339283 1.079
0.47757789 -0.30339283 1.079
0.4794108 -0.30339283 1.079
0.4812437 -0.30339283 1.079
0.48307663 -0.30339283 1.079
0.48490953 -0.30339283 1.079
0.48674244 -0.30339283 1.079
0.48857534 -0.30339283 1.079
0.49040827 -0.30339283 1.079
0.49224117 -0.30339283 1.079
0.49407408 -0.30339283 1.079
0.49590701 -0.30339283 1.079
0.49773991 -0.30339283 1.079
0.49957281 -0.30339283 1.079
0.50140572 -0.30339283 1.079
0.50323862 -0.30339283 1.079
0.50507158 -0.30339283 1.079
0.50690448 -0.30339283 1.079
0.50873739 -0.30339283 1.079
0.51057029 -0.30339283 1.079
0.51240319 -0.30339283 1.079
0.51423609 -0.30339283 1.079
0.51606899 -0.30339283 1.079
0.51790196 -0.30339283 1.079
0.5182898 -0.30254927 1.0760001
0.51818413 -0.30142456 1.072
0.52000517 -0.30142456 1.072
0.52036583 -0.30058101 1.069
-0.51546258 -0.27948511 1
-0.48266834 -0.28116202 1.006
-0.48095945 -0.28116202 1.006
-0.47925052 -0.28116202 1.006
-0.47754163 -0.28116202 1.006
-0.47583273 -0.28116202 1.006
-0.39497963 -0.28200045 1.0090001
-0.39326563 -0.28200045 1.0090001
-0.39155164 -0.28200045 1.0090001
-0.38983762 -0.28200045 1.0090001
-0.38068211 -0.28283894 1.0120001
-0.37269762 -0.28200045 1.0090001
-0.3709836 -0.28200045 1.0090001
-0.36926961 -0.28200045 1.0090001
-0.36755562 -0.28200045 1.0090001
-0.3658416 -0.28200045 1.0090001
-0.36412761 -0.28200045 1.0090001
-0.36241361 -0.28200045 1.0090001
-0.36069959 -0.28200045 1.0090001
-0.3589856 -0.28200045 1.0090001
-0.35727161 -0.28200045 1.0090001
-0.35661477 -0.28283894 1.0120001
-0.35489565 -0.28283894 1.0120001
-0.35317656 -0.28283894 1.0120001
-0.35145748 -0.28283894 1.0120001
-0.34801927 -0.28283894 1.0120001
-0.34114289 -0.28283894 1.0120001
-0.33942378 -0.28283894 1.0120001
-0.33770469 -0.28283894 1.0120001
-0.3359856 -0.28283894 1.0120001
-0.33426648 -0.28283894 1.0120001
-0.3315616 -0.28200045 1.0090001
-0.33082831 -0.28283894 1.0120001
-0.32910919 -0.28283894 1.0120001
-0.3273901 -0.28283894 1.0120001
-0.32567099 -0.28283894 1.0120001
-0.3239519 -0.28283894 1.0120001
-0.32127756 -0.28200045 1.0090001
-0.3205137 -0.28283894 1.0120001
-0.31879461 -0.28283894 1.0120001
-0.31801546 -0.28367737 1.0150001
-0.31629127 -0.28367737 1.0150001
-0.31363732 -0.28283894 1.0120001
-0.31284288 -0.28367737 1.0150001
-0.31019911 -0.28283894 1.0120001
-0.30848002 -0.28283894 1.0120001
-0.30676094 -0.28283894 1.0120001
-0.30504182 -0.28283894 1.0120001
-0.3042219 -0.28367737 1.0150001
-0.30249771 -0.28367737 1.0150001
-0.29899555 -0.28200045 1.0090001
-0.29816544 -0.28283894 1.0120001
-0.29644635 -0.28283894 1.0120001
-0.29472724 -0.28283894 1.0120001
-0.29300815 -0.28283894 1.0120001
-0.29128906 -0.28283894 1.0120001
-0.29042837 -0.28367737 1.0150001
-0.28870416 -0.28367737 1.0150001
-0.28613177 -0.28283894 1.0120001
-0.28441265 -0.28283894 1.0120001
-0.27237898 -0.28283894 1.0120001
-0.27065986 -0.28283894 1.0120001
-0.26973805 -0.28367737 1.0150001
-0.26722169 -0.28283894 1.0120001
-0.26628965 -0.28367737 1.0150001
-0.26456547 -0.28367737 1.0150001
-0.26284125 -0.28367737 1.0150001
-0.26111707 -0.28367737 1.0150001
-0.25939286 -0.28367737 1.0150001
-0.25766867 -0.28367737 1.0150001
-0.25594449 -0.28367737 1.0150001
-0.25422028 -0.28367737 1.0150001
-0.25249609 -0.28367737 1.0150001
-0.25077191 -0.28367737 1.0150001
-0.24904771 -0.28367737 1.0150001
-0.24732351 -0.28367737 1.0150001
-0.24559933 -0.28367737 1.0150001
-0.21583219 -0.28535429 1.021
-0.2140978 -0.28535429 1.021
-0.21298741 -0.28619274 1.024
-0.21062903 -0.28535429 1.021
-0.20889464 -0.28535429 1.021
-0.20716026 -0.28535429 1.021
-0.20542587 -0.28535429 1.021
-0.20309298 -0.28451583 1.018
-0.20195711 -0.28535429 1.021
-0.1996344 -0.28451583 1.018
-0.19848832 -0.28535429 1.021
-0.18395355 -0.2870312 1.0270001
-0.18220899 -0.2870312 1.0270001
-0.16301861 -0.2870312 1.0270001
-0.15999547 -0.28786966 1.0300001
-0.15824579 -0.28786966 1.0300001
-0.15649612 -0.28786966 1.0300001
-0.15474644 -0.28786966 1.0300001
-0.15299676 -0.28786966 1.0300001
-0.1512471 -0.28786966 1.0300001
-0.14949742 -0.28786966 1.0300001
-0.12185652 -0.28870812 1.033
-0.11659221 -0.28870812 1.033
-0.11483744 -0.28870812 1.033
-0.11308266 -0.28870812 1.033
-0.11132789 -0.28870812 1.033
-0.10957313 -0.28870812 1.033
-0.10781836 -0.28870812 1.033
-0.10606359 -0.28870812 1.033
-0.10430882 -0.28870812 1.033
-0.10255405 -0.28870812 1.033
-0.10079928 -0.28870812 1.033
-0.099044509 -0.28870812 1.033
-0.097289734 -0.28870812 1.033
-0.095534965 -0.28870812 1.033
-0.093780197 -0.28870812 1.033
-0.092025422 -0.28870812 1.033
-0.090270653 -0.28870812 1.033
-0.088515885 -0.28870812 1.033
-0.08676111 -0.28870812 1.033
-0.085006341 -0.28870812 1.033
-0.083251573 -0.28870812 1.033
-0.081496798 -0.28870812 1.033
-0.079742029 -0.28870812 1.033
-0.077987261 -0.28870812 1.033
-0.076232485 -0.28870812 1.033
-0.074477717 -0.28870812 1.033
-0.072722949 -0.28870812 1.033
-0.070968173 -0.28870812 1.033
-0.069213405 -0.28870812 1.033
-0.067458637 -0.28870812 1.033
-0.065703861 -0.28870812 1.033
-0.063949093 -0.28870812 1.033
-0.062194325 -0.28870812 1.033
-0.060673583 -0.28982607 1.0370001
-0.05891202 -0.28982607 1.0370001
-0.057150453 -0.28982607 1.0370001
-0.05538889 -0.28982607 1.0370001
-0.053420469 -0.28870812 1.033
-0.051665697 -0.28870812 1.033
-0.049910925 -0.28870812 1.033
-0.04834263 -0.28982607 1.0370001
-0.046401385 -0.28870812 1.033
-0.0448195 -0.28982607 1.0370001
-0.043057933 -0.28982607 1.0370001
-0.041296367 -0.28982607 1.0370001
-0.039382301 -0.28870812 1.033
-0.037627533 -0.28870812 1.033
-0.035872761 -0.28870812 1.033
-0.034018908 -0.28786966 1.0300001
-0.032363221 -0.28870812 1.033
-0.027098911 -0.28870812 1.033
-0.021919146 -0.28982607 1.0370001
-0.020079829 -0.28870812 1.033
-0.018325057 -0.28870812 1.033
-0.016570287 -0.28870812 1.033
-0.014872884 -0.28982607 1.0370001
-0.013111319 -0.28982607 1.0370001
-0.011349753 -0.28982607 1.0370001
-0.0095881885 -0.28982607 1.0370001
-0.0078266226 -0.28982607 1.0370001
-0.0060650576 -0.28982607 1.0370001
-0.0043034921 -0.28982607 1.0370001
-0.0025419269 -0.28982607 1.0370001
-0.00078036147 -0.28982607 1.0370001
0.00098404253 -0.29066452 1.0400001
0.0027427694 -0.28982607 1.0370001
0.0045043351 -0.28982607 1.0370001
0.0062840274 -0.29066452 1.0400001
0.008027466 -0.28982607 1.0370001
0.009789031 -0.28982607 1.0370001
0.011550597 -0.28982607 1.0370001
0.013312162 -0.28982607 1.0370001
0.015015583 -0.28870812 1.033
0.016770354 -0.28870812 1.033
0.018525124 -0.28870812 1.033
0.020279896 -0.28870812 1.033
0.02211999 -0.28982607 1.0370001
0.023881555 -0.28982607 1.0370001
0.02564312 -0.28982607 1.0370001
0.027404686 -0.28982607 1.0370001
0.02916625 -0.28982607 1.0370001
0.030927815 -0.28982607 1.0370001
0.032689381 -0.28982607 1.0370001
0.034550611 -0.29066452 1.0400001
0.036317274 -0.29066452 1.0400001
0.038083937 -0.29066452 1.0400001
0.039850596 -0.29066452 1.0400001
0.041617259 -0.29066452 1.0400001
0.043383919 -0.29066452 1.0400001
0.045150582 -0.29066452 1.0400001
0.046917245 -0.29066452 1.0400001
0.048683904 -0.29066452 1.0400001
0.050450567 -0.29066452 1.0400001
0.052217226 -0.29066452 1.0400001
0.05398389 -0.29066452 1.0400001
0.055750556 -0.29066452 1.0400001
0.057517216 -0.29066452 1.0400001
0.059454884 -0.29150295 1.0430001
0.06122664 -0.29150295 1.0430001
0.062998399 -0.29150295 1.0430001
0.064956456 -0.29234144 1.046
0.066733308 -0.29234144 1.046
0.068510167 -0.29234144 1.046
0.070287019 -0.29234144 1.046
0.072063871 -0.29234144 1.046
0.082250476 -0.29066452 1.0400001
0.084017143 -0.29066452 1.0400001
0.24496156 -0.29513627 1.056
0.24675541 -0.29513627 1.056
0.25537357 -0.29681319 1.062
0.26724473 -0.29597473 1.059
0.26980582 -0.29681319 1.062
0.27160984 -0.29681319 1.062
0.27264154 -0.29597473 1.059
0.27444047 -0.29597473 1.059
0.27702194 -0.29681319 1.062
0.278826 -0.29681319 1.062
0.28063002 -0.29681319 1.062
0.28243405 -0.29681319 1.062
0.2842381 -0.29681319 1.062
0.28604212 -0.29681319 1.062
0.28784615 -0.29681319 1.062
0.2896502 -0.29681319 1.062
0.29145423 -0.29681319 1.062
0.29325825 -0.29681319 1.062
0.2950623 -0.29681319 1.062
0.29686633 -0.29681319 1.062
0.29867035 -0.29681319 1.062
0.29962558 -0.29597473 1.059
0.30227843 -0.29681319 1.062
0.30408245 -0.29681319 1.062
0.30588648 -0.29681319 1.062
0.30769053 -0.29681319 1.062
0.31066024 -0.29793113 1.0660001
0.31247106 -0.29793113 1.0660001
0.31428191 -0.29793113 1.0660001
0.3169823 -0.29876956 1.069
0.31879821 -0.29876956 1.069
0.3197144 -0.29793113 1.0660001
0.33782268 -0.29793113 1.0660001
0.33963349 -0.29793113 1.0660001
0.34144431 -0.29793113 1.0660001
0.34422117 -0.29876956 1.069
0.34603709 -0.29876956 1.069
0.347853 -0.29876956 1.069
0.34966892 -0.29876956 1.069
0.37509188 -0.29876956 1.069
0.3769078 -0.29876956 1.069
0.37872371 -0.29876956 1.069
0.38053966 -0.29876956 1.069
0.3834286 -0.29960805 1.072
0.38524961 -0.29960805 1.072
0.38707063 -0.29960805 1.072
0.38889167 -0.29960805 1.072
0.39071268 -0.29960805 1.072
0.39253369 -0.29960805 1.072
0.39435473 -0.29960805 1.072
0.39617574 -0.29960805 1.072
0.39799675 -0.29960805 1.072
0.39981779 -0.29960805 1.072
0.40163881 -0.29960805 1.072
0.40345982 -0.29960805 1.072
0.40528086 -0.29960805 1.072
0.40710187 -0.29960805 1.072
0.41044873 -0.30072597 1.0760001
0.41227654 -0.30072597 1.0760001
0.41410437 -0.30072597 1.0760001
0.41709185 -0.30156443 1.079
0.41892475 -0.30156443 1.079
0.42075765 -0.30156443 1.079
0.42259058 -0.30156443 1.079
0.42442349 -0.30156443 1.079
0.42625639 -0.30156443 1.079
0.42808929 -0.30156443 1.079
0.42872688 -0.30072597 1.0760001
0.43055469 -0.30072597 1.0760001
0.43603814 -0.30072597 1.0760001
0.43908677 -0.30156443 1.079
0.43969378 -0.30072597 1.0760001
0.44152158 -0.30072597 1.0760001
0.4445855 -0.30156443 1.079
0.4464184 -0.30156443 1.079
0.44825131 -0.30156443 1.079
0.45008421 -0.30156443 1.079
0.45191711 -0.30156443 1.079
0.45375004 -0.30156443 1.079
0.45558295 -0.30156443 1.079
0.45741585 -0.30156443 1.079
0.45924878 -0.30156443 1.079
0.46108168 -0.30156443 1.079
0.46162754 -0.30072597 1.0760001
0.46345538 -0.30072597 1.0760001
0.46528319 -0.30072597 1.0760001
0.46711099 -0.30072597 1.0760001
0.46893883 -0.30072597 1.0760001
0.47076663 -0.30072597 1.0760001
0.47259444 -0.30072597 1.0760001
0.47442225 -0.30072597 1.0760001
0.47757789 -0.30156443 1.079
0.4794108 -0.30156443 1.079
0.4812437 -0.30156443 1.079
0.48307663 -0.30156443 1.079
0.48490953 -0.30156443 1.079
0.48674244 -0.30156443 1.079
0.48857534 -0.30156443 1.079
0.49040827 -0.30156443 1.079
0.49224117 -0.30156443 1.079
0.49407408 -0.30156443 1.079
0.49452823 -0.30072597 1.0760001
0.49635604 -0.30072597 1.0760001
0.49818385 -0.30072597 1.0760001
0.50001168 -0.30072597 1.0760001
0.50183952 -0.30072597 1.0760001
0.50366729 -0.30072597 1.0760001
0.50549513 -0.30072597 1.0760001
0.50732291 -0.30072597 1.0760001
0.50915074 -0.30072597 1.0760001
0.51097858 -0.30072597 1.0760001
0.51280636 -0.30072597 1.0760001
0.51463419 -0.30072597 1.0760001
0.51646203 -0.30072597 1.0760001
0.51636308 -0.29960805 1.072
0.51673394 -0.29876956 1.069
0.51854986 -0.29876956 1.069
0.52036583 -0.29876956 1.069
-0.5232327 -0.27473488 0.98900002
-0.48122895 -0.27862397 1.003
-0.47952515 -0.27862397 1.003
-0.47782132 -0.27862397 1.003
-0.47611752 -0.27862397 1.003
-0.47129604 -0.27779061 1
-0.45396802 -0.27862397 1.003
-0.45056039 -0.27862397 1.003
-0.36133605 -0.27945733 1.006
-0.35962716 -0.27945733 1.006
-0.35791826 -0.27945733 1.006
-0.35620934 -0.27945733 1.006
-0.35450044 -0.27945733 1.006
-0.35279155 -0.27945733 1.006
-0.35108262 -0.27945733 1.006
-0.35041559 -0.28029069 1.0090001
-0.34973836 -0.28112409 1.0120001
-0.34698761 -0.28029069 1.0090001
-0.34630018 -0.28112409 1.0120001
-0.34458107 -0.28112409 1.0120001
-0.34286198 -0.28112409 1.0120001
-0.34114289 -0.28112409 1.0120001
-0.33841759 -0.28029069 1.0090001
-0.3367036 -0.28029069 1.0090001
-0.33498958 -0.28029069 1.0090001
-0.33327559 -0.28029069 1.0090001
-0.33057576 -0.27945733 1.006
-0.32886687 -0.27945733 1.006
-0.32813358 -0.28029069 1.0090001
-0.32544905 -0.27945733 1.006
-0.32470557 -0.28029069 1.0090001
-0.32203123 -0.27945733 1.006
-0.32032233 -0.27945733 1.006
-0.31956357 -0.28029069 1.0090001
-0.31784958 -0.28029069 1.0090001
-0.31613556 -0.28029069 1.0090001
-0.31442156 -0.28029069 1.0090001
-0.31270757 -0.28029069 1.0090001
-0.31099355 -0.28029069 1.0090001
-0.30927956 -0.28029069 1.0090001
-0.30665109 -0.27945733 1.006
-0.30494219 -0.27945733 1.006
-0.3032333 -0.27945733 1.006
-0.30152437 -0.27945733 1.006
-0.29981548 -0.27945733 1.006
-0.29810658 -0.27945733 1.006
-0.29728156 -0.28029069 1.0090001
-0.29556754 -0.28029069 1.0090001
-0.29385355 -0.28029069 1.0090001
-0.29213956 -0.28029069 1.0090001
-0.29042554 -0.28029069 1.0090001
-0.28871155 -0.28029069 1.0090001
-0.28699756 -0.28029069 1.0090001
-0.28528354 -0.28029069 1.0090001
-0.28356954 -0.28029069 1.0090001
-0.28269356 -0.28112409 1.0120001
-0.28014153 -0.28029069 1.0090001
-0.27925536 -0.28112409 1.0120001
-0.27753627 -0.28112409 1.0120001
-0.27581719 -0.28112409 1.0120001
-0.27409807 -0.28112409 1.0120001
-0.27157152 -0.28029069 1.0090001
-0.27065986 -0.28112409 1.0120001
-0.26814353 -0.28029069 1.0090001
-0.26722169 -0.28112409 1.0120001
-0.26471552 -0.28029069 1.0090001
-0.26378348 -0.28112409 1.0120001
-0.26128751 -0.28029069 1.0090001
-0.25957352 -0.28029069 1.0090001
-0.25862619 -0.28112409 1.0120001
-0.25690711 -0.28112409 1.0120001
-0.25518799 -0.28112409 1.0120001
-0.2534689 -0.28112409 1.0120001
-0.25174981 -0.28112409 1.0120001
-0.2500307 -0.28112409 1.0120001
-0.24831161 -0.28112409 1.0120001
-0.24659251 -0.28112409 1.0120001
-0.24559933 -0.28195745 1.0150001
-0.24387513 -0.28195745 1.0150001
-0.21519801 -0.28279081 1.018
-0.21346872 -0.28279081 1.018
-0.21173944 -0.28279081 1.018
-0.21001014 -0.28279081 1.018
-0.20828085 -0.28279081 1.018
-0.20655157 -0.28279081 1.018
-0.20482227 -0.28279081 1.018
-0.17247254 -0.28362417 1.021
-0.17123984 -0.28445756 1.024
-0.16950035 -0.28445756 1.024
-0.16776086 -0.28445756 1.024
-0.16602138 -0.28445756 1.024
-0.1642819 -0.28445756 1.024
-0.16254242 -0.28445756 1.024
-0.16127405 -0.28529096 1.0270001
-0.15952946 -0.28529096 1.0270001
-0.15824579 -0.28612432 1.0300001
-0.15649612 -0.28612432 1.0300001
-0.15429573 -0.28529096 1.0270001
-0.15299676 -0.28612432 1.0300001
-0.15080658 -0.28529096 1.0270001
-0.14906199 -0.28529096 1.0270001
-0.14731741 -0.28529096 1.0270001
-0.14557284 -0.28529096 1.0270001
-0.11100458 -0.28612432 1.0300001
-0.1092549 -0.28612432 1.0300001
-0.10750523 -0.28612432 1.0300001
-0.10575556 -0.28612432 1.0300001
-0.10400588 -0.28612432 1.0300001
-0.10225621 -0.28612432 1.0300001
-0.10050654 -0.28612432 1.0300001
-0.098756857 -0.28612432 1.0300001
-0.097007185 -0.28612432 1.0300001
-0.095257513 -0.28612432 1.0300001
-0.093507834 -0.28612432 1.0300001
-0.091758162 -0.28612432 1.0300001
-0.09000849 -0.28612432 1.0300001
-0.08825881 -0.28612432 1.0300001
-0.086509138 -0.28612432 1.0300001
-0.084759466 -0.28612432 1.0300001
-0.083009787 -0.28612432 1.0300001
-0.081260115 -0.28612432 1.0300001
-0.079510443 -0.28612432 1.0300001
-0.077760763 -0.28612432 1.0300001
-0.076011091 -0.28612432 1.0300001
-0.074261419 -0.28612432 1.0300001
-0.07251174 -0.28612432 1.0300001
-0.070762068 -0.28612432 1.0300001
-0.069012396 -0.28612432 1.0300001
-0.067262717 -0.28612432 1.0300001
-0.065513045 -0.28612432 1.0300001
-0.063763373 -0.28612432 1.0300001
-0.062013697 -0.28612432 1.0300001
-0.060088497 -0.28529096 1.0270001
-0.058514349 -0.28612432 1.0300001
-0.056764673 -0.28612432 1.0300001
-0.055015001 -0.28612432 1.0300001
-0.053265326 -0.28612432 1.0300001
-0.051515654 -0.28612432 1.0300001
-0.049765978 -0.28612432 1.0300001
-0.048156157 -0.28695768 1.033
-0.046401385 -0.28695768 1.033
-0.044646613 -0.28695768 1.033
-0.042891845 -0.28695768 1.033
-0.041137073 -0.28695768 1.033
-0.039267931 -0.28612432 1.0300001
-0.037518259 -0.28612432 1.0300001
-0.035768583 -0.28612432 1.0300001
-0.014815517 -0.28695768 1.033
-0.013060745 -0.28695768 1.033
-0.011305975 -0.28695768 1.033
-0.0095512038 -0.28695768 1.033
-0.0077964333 -0.28695768 1.033
-0.0060416628 -0.28695768 1.033
-0.0042868922 -0.28695768 1.033
-0.0025247682 -0.28612432 1.0300001
-0.00077509379 -0.28612432 1.0300001
0.0009774192 -0.28695768 1.033
0.002724255 -0.28612432 1.0300001
0.0044739293 -0.28612432 1.0300001
0.0062236041 -0.28612432 1.0300001
0.0079965014 -0.28695768 1.033
0.0097229527 -0.28612432 1.0300001
0.011472627 -0.28612432 1.0300001
0.013222301 -0.28612432 1.0300001
0.014971976 -0.28612432 1.0300001
0.016721651 -0.28612432 1.0300001
0.018471325 -0.28612432 1.0300001
0.020279896 -0.28695768 1.033
0.022034666 -0.28695768 1.033
0.023789436 -0.28695768 1.033
0.025470022 -0.28612432 1.0300001
0.027298978 -0.28695768 1.033
0.02905375 -0.28695768 1.033
0.03080852 -0.28695768 1.033
0.032563291 -0.28695768 1.033
0.034450945 -0.28806883 1.0370001
0.036072832 -0.28695768 1.033
0.037974078 -0.28806883 1.0370001
0.039735641 -0.28806883 1.0370001
0.041497208 -0.28806883 1.0370001
0.043258771 -0.28806883 1.0370001
0.045020338 -0.28806883 1.0370001
0.046781905 -0.28806883 1.0370001
0.048543468 -0.28806883 1.0370001
0.050305035 -0.28806883 1.0370001
0.052066602 -0.28806883 1.0370001
0.05398389 -0.28890222 1.0400001
0.055750556 -0.28890222 1.0400001
0.057517216 -0.28890222 1.0400001
0.059283879 -0.28890222 1.0400001
0.061050538 -0.28890222 1.0400001
0.062998399 -0.28973559 1.0430001
0.064770155 -0.28973559 1.0430001
0.066541918 -0.28973559 1.0430001
0.068313673 -0.28973559 1.0430001
0.070085429 -0.28973559 1.0430001
0.071857184 -0.28973559 1.0430001
0.082250476 -0.28890222 1.0400001
0.084017143 -0.28890222 1.0400001
0.085536346 -0.28806883 1.0370001
0.24496156 -0.29334685 1.056
0.24675541 -0.29334685 1.056
0.2593123 -0.29334685 1.056
0.26364684 -0.29418024 1.059
0.2654458 -0.29418024 1.059
0.26724473 -0.29418024 1.059
0.26904365 -0.29418024 1.059
0.27084258 -0.29418024 1.059
0.27264154 -0.29418024 1.059
0.27444047 -0.29418024 1.059
0.2762394 -0.29418024 1.059
0.27803835 -0.29418024 1.059
0.27983728 -0.29418024 1.059
0.28163621 -0.29418024 1.059
0.28343517 -0.29418024 1.059
0.28523409 -0.29418024 1.059
0.28703302 -0.29418024 1.059
0.28883198 -0.29418024 1.059
0.29063091 -0.29418024 1.059
0.29242983 -0.29418024 1.059
0.29422879 -0.29418024 1.059
0.29602772 -0.29418024 1.059
0.29782665 -0.29418024 1.059
0.29877681 -0.29334685 1.056
0.30142453 -0.29418024 1.059
0.30322346 -0.29418024 1.059
0.30502239 -0.29418024 1.059
0.30682135 -0.29418024 1.059
0.30949455 -0.29501361 1.062
0.31129858 -0.29501361 1.062
0.31428191 -0.29612479 1.0660001
0.31609273 -0.29612479 1.0660001
0.31790355 -0.29612479 1.0660001
0.3197144 -0.29612479 1.0660001
0.32152522 -0.29612479 1.0660001
0.32333604 -0.29612479 1.0660001
0.32514688 -0.29612479 1.0660001
0.33782268 -0.29612479 1.0660001
0.33963349 -0.29612479 1.0660001
0.34144431 -0.29612479 1.0660001
0.34325516 -0.29612479 1.0660001
0.34506598 -0.29612479 1.0660001
0.3468768 -0.29612479 1.0660001
0.34868765 -0.29612479 1.0660001
0.3769078 -0.29695815 1.069
0.37872371 -0.29695815 1.069
0.38053966 -0.29695815 1.069
0.38235557 -0.29695815 1.069
0.38524961 -0.29779151 1.072
0.38707063 -0.29779151 1.072
0.38889167 -0.29779151 1.072
0.39071268 -0.29779151 1.072
0.39253369 -0.29779151 1.072
0.39506704 -0.29695815 1.069
0.39688295 -0.29695815 1.069
0.3986989 -0.29695815 1.069
0.40051481 -0.29695815 1.069
0.40233073 -0.29695815 1.069
0.40414667 -0.29695815 1.069
0.40596259 -0.29695815 1.069
0.4077785 -0.29695815 1.069
0.40959445 -0.29695815 1.069
0.41141036 -0.29695815 1.069
0.41438594 -0.29779151 1.072
0.41620696 -0.29779151 1.072
0.418028 -0.29779151 1.072
0.41984901 -0.29779151 1.072
0.42167002 -0.29779151 1.072
0.42349106 -0.29779151 1.072
0.42689908 -0.29890266 1.0760001
0.42713308 -0.29779151 1.072
0.42895409 -0.29779151 1.072
0.43077514 -0.29779151 1.072
0.43259615 -0.29779151 1.072
0.43441716 -0.29779151 1.072
0.4362382 -0.29779151 1.072
0.43805921 -0.29779151 1.072
0.43988022 -0.29779151 1.072
0.44170126 -0.29779151 1.072
0.44517723 -0.29890266 1.0760001
0.44534332 -0.29779151 1.072
0.44716433 -0.29779151 1.072
0.45066068 -0.29890266 1.0760001
0.45248848 -0.29890266 1.0760001
0.45431629 -0.29890266 1.0760001
0.45614409 -0.29890266 1.0760001
0.45797193 -0.29890266 1.0760001
0.45809045 -0.29779151 1.072
0.46162754 -0.29890266 1.0760001
0.46345538 -0.29890266 1.0760001
0.46355352 -0.29779151 1.072
0.46537453 -0.29779151 1.072
0.46719557 -0.29779151 1.072
0.46901658 -0.29779151 1.072
0.47083759 -0.29779151 1.072
0.47265863 -0.29779151 1.072
0.47447965 -0.29779151 1.072
0.47807789 -0.29890266 1.0760001
0.47990569 -0.29890266 1.0760001
0.47994271 -0.29779151 1.072
0.48176372 -0.29779151 1.072
0.48358476 -0.29779151 1.072
0.48540577 -0.29779151 1.072
0.48722678 -0.29779151 1.072
0.4890478 -0.29779151 1.072
0.49086884 -0.29779151 1.072
0.49268985 -0.29779151 1.072
0.49451086 -0.29779151 1.072
0.4963319 -0.29779151 1.072
0.49815291 -0.29779151 1.072
0.49997392 -0.29779151 1.072
0.50179493 -0.29779151 1.072
0.50361598 -0.29779151 1.072
0.50543702 -0.29779151 1.072
0.507258 -0.29779151 1.072
0.50907904 -0.29779151 1.072
0.51090008 -0.29779151 1.072
0.51272106 -0.29779151 1.072
0.51310211 -0.29695815 1.069
0.51491803 -0.29695815 1.069
0.51673394 -0.29695815 1.069
0.51854986 -0.29695815 1.069
0.51890552 -0.29612479 1.0660001
0.52071631 -0.29612479 1.0660001
-0.52332044 -0.27223074 0.98600006
-0.5232327 -0.27305901 0.98900002
-0.49020553 -0.27526778 0.99700004
-0.48828319 -0.27609608 1
-0.48658445 -0.27609608 1
-0.48488575 -0.27609608 1
-0.48318705 -0.27609608 1
-0.48148832 -0.27609608 1
-0.47978961 -0.27609608 1
-0.47809088 -0.27609608 1
-0.47639218 -0.27609608 1
-0.47469348 -0.27609608 1
-0.47299474 -0.27609608 1
-0.47129604 -0.27609608 1
-0.46959734 -0.27609608 1
-0.46789861 -0.27609608 1
-0.4661999 -0.27609608 1
-0.46310768 -0.27526778 0.99700004
-0.46280247 -0.27609608 1
-0.46110377 -0.27609608 1
-0.45940506 -0.27609608 1
-0.45907944 -0.27692437 1.003
-0.45737562 -0.27692437 1.003
-0.45567182 -0.27692437 1.003
-0.45396802 -0.27692437 1.003
-0.45226419 -0.27692437 1.003
-0.45056039 -0.27692437 1.003
-0.44885656 -0.27692437 1.003
-0.44715276 -0.27692437 1.003
-0.44544896 -0.27692437 1.003
-0.44374517 -0.27692437 1.003
-0.44204137 -0.27692437 1.003
-0.41137281 -0.27692437 1.003
-0.40966898 -0.27692437 1.003
-0.40796518 -0.27692437 1.003
-0.40626138 -0.27692437 1.003
-0.40334752 -0.27609608 1
-0.40164882 -0.27609608 1
-0.35791826 -0.27775267 1.006
-0.35514709 -0.27692437 1.003
-0.35344329 -0.27692437 1.003
-0.35173947 -0.27692437 1.003
-0.35003567 -0.27692437 1.003
-0.34937373 -0.27775267 1.006
-0.34766483 -0.27775267 1.006
-0.34595591 -0.27775267 1.006
-0.34424701 -0.27775267 1.006
-0.34253812 -0.27775267 1.006
-0.34082919 -0.27775267 1.006
-0.3391203 -0.27775267 1.006
-0.3374114 -0.27775267 1.006
-0.33570248 -0.27775267 1.006
-0.33399358 -0.27775267 1.006
-0.33228469 -0.27775267 1.006
-0.32958996 -0.27692437 1.003
-0.32788616 -0.27692437 1.003
-0.32618234 -0.27692437 1.003
-0.32447854 -0.27692437 1.003
-0.32374015 -0.27775267 1.006
-0.32203123 -0.27775267 1.006
-0.31936711 -0.27692437 1.003
-0.31861344 -0.27775267 1.006
-0.31690452 -0.27775267 1.006
-0.31519562 -0.27775267 1.006
-0.31255186 -0.27692437 1.003
-0.31084806 -0.27692437 1.003
-0.30914426 -0.27692437 1.003
-0.30744043 -0.27692437 1.003
-0.30573663 -0.27692437 1.003
-0.30403283 -0.27692437 1.003
-0.3032333 -0.27775267 1.006
-0.30152437 -0.27775267 1.006
-0.27930862 -0.27775267 1.006
-0.27759969 -0.27775267 1.006
-0.2758908 -0.27775267 1.006
-0.2741819 -0.27775267 1.006
-0.27247298 -0.27775267 1.006
-0.27076408 -0.27775267 1.006
-0.26905519 -0.27775267 1.006
-0.26734626 -0.27775267 1.006
-0.26563737 -0.27775267 1.006
-0.26392847 -0.27775267 1.006
-0.26300153 -0.27858093 1.0090001
-0.26128751 -0.27858093 1.0090001
-0.25957352 -0.27858093 1.0090001
-0.25785953 -0.27858093 1.0090001
-0.25614551 -0.27858093 1.0090001
-0.25443152 -0.27858093 1.0090001
-0.25271752 -0.27858093 1.0090001
-0.2510035 -0.27858093 1.0090001
-0.24928951 -0.27858093 1.0090001
-0.24757551 -0.27858093 1.0090001
-0.24659251 -0.27940923 1.0120001
-0.24414751 -0.27858093 1.0090001
-0.24315432 -0.27940923 1.0120001
-0.24143521 -0.27940923 1.0120001
-0.23971613 -0.27940923 1.0120001
-0.23799703 -0.27940923 1.0120001
-0.23627792 -0.27940923 1.0120001
-0.23455884 -0.27940923 1.0120001
-0.23283973 -0.27940923 1.0120001
-0.21801223 -0.2802375 1.0150001
-0.2169273 -0.28106582 1.018
-0.21519801 -0.28106582 1.018
-0.21283965 -0.2802375 1.0150001
-0.21173944 -0.28106582 1.018
-0.20939125 -0.2802375 1.0150001
-0.16900377 -0.28189409 1.021
-0.16677789 -0.28106582 1.018
-0.16553499 -0.28189409 1.021
-0.16331932 -0.28106582 1.018
-0.16206622 -0.28189409 1.021
-0.16080293 -0.28272238 1.024
-0.15952946 -0.28355068 1.0270001
-0.15778488 -0.28355068 1.0270001
-0.15558448 -0.28272238 1.024
-0.15384501 -0.28272238 1.024
-0.15255114 -0.28355068 1.0270001
-0.15036604 -0.28272238 1.024
-0.14862657 -0.28272238 1.024
-0.14688708 -0.28272238 1.024
-0.14514759 -0.28272238 1.024
-0.14340812 -0.28272238 1.024
-0.14166863 -0.28272238 1.024
-0.13992915 -0.28272238 1.024
-0.10050654 -0.28437895 1.0300001
-0.098756857 -0.28437895 1.0300001
-0.096724644 -0.28355068 1.0270001
-0.094980061 -0.28355068 1.0270001
-0.093507834 -0.28437895 1.0300001
-0.091490909 -0.28355068 1.0270001
-0.09000849 -0.28437895 1.0300001
-0.08800175 -0.28355068 1.0270001
-0.086257175 -0.28355068 1.0270001
-0.084759466 -0.28437895 1.0300001
-0.082768016 -0.28355068 1.0270001
-0.08102344 -0.28355068 1.0270001
-0.079278857 -0.28355068 1.0270001
-0.077534281 -0.28355068 1.0270001
-0.075789705 -0.28355068 1.0270001
-0.074045122 -0.28355068 1.0270001
-0.072300546 -0.28355068 1.0270001
-0.07055597 -0.28355068 1.0270001
-0.068811387 -0.28355068 1.0270001
-0.067066811 -0.28355068 1.0270001
-0.065322235 -0.28355068 1.0270001
-0.063577652 -0.28355068 1.0270001
-0.061833076 -0.28355068 1.0270001
-0.060088497 -0.28355068 1.0270001
-0.058343917 -0.28355068 1.0270001
-0.056599341 -0.28355068 1.0270001
-0.055015001 -0.28437895 1.0300001
-0.053265326 -0.28437895 1.0300001
-0.051515654 -0.28437895 1.0300001
-0.049765978 -0.28437895 1.0300001
-0.048016302 -0.28437895 1.0300001
-0.04626663 -0.28437895 1.0300001
-0.044516955 -0.28437895 1.0300001
-0.042767283 -0.28437895 1.0300001
-0.041017607 -0.28437895 1.0300001
-0.039153557 -0.28355068 1.0270001
-0.037408978 -0.28355068 1.0270001
-0.035664402 -0.28355068 1.0270001
0.00097458065 -0.28437895 1.0300001
0.0062236041 -0.28437895 1.0300001
0.0079732779 -0.28437895 1.0300001
0.025470022 -0.28437895 1.0300001
0.027219696 -0.28437895 1.0300001
0.028969372 -0.28437895 1.0300001
0.030719046 -0.28437895 1.0300001
0.032468721 -0.28437895 1.0300001
0.034218393 -0.28437895 1.0300001
0.035968069 -0.28437895 1.0300001
0.037827604 -0.28520724 1.033
0.039582372 -0.28520724 1.033
0.041337144 -0.28520724 1.033
0.043091916 -0.28520724 1.033
0.045020338 -0.28631163 1.0370001
0.046601456 -0.28520724 1.033
0.048356228 -0.28520724 1.033
0.050110996 -0.28520724 1.033
0.051865768 -0.28520724 1.033
0.053828165 -0.28631163 1.0370001
0.055589732 -0.28631163 1.0370001
0.057351299 -0.28631163 1.0370001
0.059112865 -0.28631163 1.0370001
0.060874432 -0.28631163 1.0370001
0.062635995 -0.28631163 1.0370001
0.06458386 -0.28713992 1.0400001
0.066350527 -0.28713992 1.0400001
0.068313673 -0.28796819 1.0430001
0.069883846 -0.28713992 1.0400001
0.071650505 -0.28713992 1.0400001
0.073417172 -0.28713992 1.0400001
0.080251649 -0.28631163 1.0370001
0.082013212 -0.28631163 1.0370001
0.083774783 -0.28631163 1.0370001
0.085536346 -0.28631163 1.0370001
0.24675541 -0.29155746 1.056
0.24854924 -0.29155746 1.056
0.2593123 -0.29155746 1.056
0.26110613 -0.29155746 1.056
0.26289997 -0.29155746 1.056
0.26469383 -0.29155746 1.056
0.26648766 -0.29155746 1.056
0.26828149 -0.29155746 1.056
0.27007532 -0.29155746 1.056
0.27186918 -0.29155746 1.056
0.27366301 -0.29155746 1.056
0.27545685 -0.29155746 1.056
0.27725071 -0.29155746 1.056
0.27904454 -0.29155746 1.056
0.28083837 -0.29155746 1.056
0.28263223 -0.29155746 1.056
0.28442606 -0.29155746 1.056
0.28621989 -0.29155746 1.056
0.28801376 -0.29155746 1.056
0.29602772 -0.29238576 1.059
0.30595216 -0.29155746 1.056
0.30862027 -0.29238576 1.059
0.31129858 -0.29321402 1.062
0.31310263 -0.29321402 1.062
0.31490666 -0.29321402 1.062
0.31671068 -0.29321402 1.062
0.31851473 -0.29321402 1.062
0.32031876 -0.29321402 1.062
0.32212278 -0.29321402 1.062
0.32392684 -0.29321402 1.062
0.32573086 -0.29321402 1.062
0.32753488 -0.29321402 1.062
0.32933891 -0.29321402 1.062
0.33114296 -0.29321402 1.062
0.33294699 -0.29321402 1.062
0.33475101 -0.29321402 1.062
0.33655506 -0.29321402 1.062
0.33835909 -0.29321402 1.062
0.34016311 -0.29321402 1.062
0.34196717 -0.29321402 1.062
0.34377119 -0.29321402 1.062
0.3468768 -0.29431844 1.0660001
0.34868765 -0.29431844 1.0660001
0.35049847 -0.29431844 1.0660001
0.35230929 -0.29431844 1.0660001
0.37222841 -0.29431844 1.0660001
0.37403923 -0.29431844 1.0660001
0.37585005 -0.29431844 1.0660001
0.37766087 -0.29431844 1.0660001
0.37947172 -0.29431844 1.0660001
0.38235557 -0.2951467 1.069
0.38417149 -0.2951467 1.069
0.38598743 -0.2951467 1.069
0.39758 -0.29431844 1.0660001
0.39939082 -0.29431844 1.0660001
0.40120164 -0.29431844 1.0660001
0.40301248 -0.29431844 1.0660001
0.40596259 -0.2951467 1.069
0.4077785 -0.2951467 1.069
0.40959445 -0.2951467 1.069
0.41025579 -0.29431844 1.0660001
0.41322628 -0.2951467 1.069
0.41504219 -0.2951467 1.069
0.41685814 -0.2951467 1.069
0.41867405 -0.2951467 1.069
0.42048997 -0.2951467 1.069
0.42230591 -0.2951467 1.069
0.42412183 -0.2951467 1.069
0.42713308 -0.295975 1.072
0.42895409 -0.295975 1.072
0.44352227 -0.295975 1.072
0.44409698 -0.2951467 1.069
0.44716433 -0.295975 1.072
0.44898537 -0.295975 1.072
0.45080638 -0.295975 1.072
0.45262739 -0.295975 1.072
0.45317662 -0.2951467 1.069
0.45499253 -0.2951467 1.069
0.45680848 -0.2951467 1.069
0.45862439 -0.2951467 1.069
0.46044031 -0.2951467 1.069
0.46225622 -0.2951467 1.069
0.46276984 -0.29431844 1.0660001
0.46458066 -0.29431844 1.0660001
0.467704 -0.2951467 1.069
0.46951994 -0.2951467 1.069
0.47133586 -0.2951467 1.069
0.47315177 -0.2951467 1.069
0.47496772 -0.2951467 1.069
0.47678363 -0.2951467 1.069
0.47859955 -0.2951467 1.069
0.48041549 -0.2951467 1.069
0.48223141 -0.2951467 1.069
0.48404732 -0.2951467 1.069
0.48586324 -0.2951467 1.069
0.48767918 -0.2951467 1.069
0.4894951 -0.2951467 1.069
0.49131101 -0.2951467 1.069
0.50039065 -0.2951467 1.069
0.50220656 -0.2951467 1.069
0.50402248 -0.2951467 1.069
0.50583839 -0.2951467 1.069
0.50765437 -0.2951467 1.069
0.50947028 -0.2951467 1.069
0.5112862 -0.2951467 1.069
0.51673394 -0.2951467 1.069
0.51709467 -0.29431844 1.0660001
0.52071631 -0.29431844 1.0660001
-0.52172822 -0.26973674 0.98300004
-0.47809088 -0.27440158 1
-0.47639218 -0.27440158 1
-0.46649489 -0.27357835 0.99700004
-0.46480128 -0.27357835 0.99700004
-0.45802683 -0.27357835 0.99700004
-0.45633319 -0.27357835 0.99700004
-0.45463958 -0.27357835 0.99700004
-0.45294595 -0.27357835 0.99700004
-0.45125234 -0.27357835 0.99700004
-0.44955873 -0.27357835 0.99700004
-0.4478651 -0.27357835 0.99700004
-0.44617149 -0.27357835 0.99700004
-0.44581535 -0.27440158 1
-0.44411662 -0.27440158 1
-0.44241792 -0.27440158 1
-0.44071922 -0.27440158 1
-0.43902048 -0.27440158 1
-0.43732178 -0.27440158 1
-0.43562308 -0.27440158 1
-0.43392435 -0.27440158 1
-0.43222564 -0.27440158 1
-0.43181852 -0.27522475 1.003
-0.42882821 -0.27440158 1
-0.42712951 -0.27440158 1
-0.4254308 -0.27440158 1
-0.42373207 -0.27440158 1
-0.42203337 -0.27440158 1
-0.42033467 -0.27440158 1
-0.41863593 -0.27440158 1
-0.41693723 -0.27440158 1
-0.4152385 -0.27440158 1
-0.4135398 -0.27440158 1
-0.41184109 -0.27440158 1
-0.41014236 -0.27440158 1
-0.40844366 -0.27440158 1
-0.40674496 -0.27440158 1
-0.40504622 -0.27440158 1
-0.40213749 -0.27357835 0.99700004
-0.40044385 -0.27357835 0.99700004
-0.39315525 -0.27440158 1
-0.39145654 -0.27440158 1
-0.39092708 -0.27522475 1.003
-0.38922328 -0.27522475 1.003
-0.38751948 -0.27522475 1.003
-0.38581565 -0.27522475 1.003
-0.38411185 -0.27522475 1.003
-0.38240805 -0.27522475 1.003
-0.38070422 -0.27522475 1.003
-0.37900043 -0.27522475 1.003
-0.37729663 -0.27522475 1.003
-0.3755928 -0.27522475 1.003
-0.35408485 -0.27440158 1
-0.35344329 -0.27522475 1.003
-0.35068741 -0.27440158 1
-0.35003567 -0.27522475 1.003
-0.34833187 -0.27522475 1.003
-0.34662804 -0.27522475 1.003
-0.34492424 -0.27522475 1.003
-0.34322044 -0.27522475 1.003
-0.34151661 -0.27522475 1.003
-0.33981282 -0.27522475 1.003
-0.33810902 -0.27522475 1.003
-0.33640519 -0.27522475 1.003
-0.33470139 -0.27522475 1.003
-0.33299759 -0.27522475 1.003
-0.33129376 -0.27522475 1.003
-0.32958996 -0.27522475 1.003
-0.32788616 -0.27522475 1.003
-0.32618234 -0.27522475 1.003
-0.32447854 -0.27522475 1.003
-0.32277471 -0.27522475 1.003
-0.32011059 -0.27440158 1
-0.31841186 -0.27440158 1
-0.31671315 -0.27440158 1
-0.31501445 -0.27440158 1
-0.31425568 -0.27522475 1.003
-0.31255186 -0.27522475 1.003
-0.30991831 -0.27440158 1
-0.30821958 -0.27440158 1
-0.30744043 -0.27522475 1.003
-0.30573663 -0.27522475 1.003
-0.30403283 -0.27522475 1.003
-0.2741819 -0.27604797 1.006
-0.27247298 -0.27604797 1.006
-0.26905519 -0.27604797 1.006
-0.26654902 -0.27522475 1.003
-0.2424335 -0.27687117 1.0090001
-0.2407195 -0.27687117 1.0090001
-0.23900551 -0.27687117 1.0090001
-0.2372915 -0.27687117 1.0090001
-0.23557749 -0.27687117 1.0090001
-0.2338635 -0.27687117 1.0090001
-0.2321495 -0.27687117 1.0090001
-0.23112063 -0.27769437 1.0120001
-0.22940153 -0.27769437 1.0120001
-0.22424424 -0.27769437 1.0120001
-0.22252515 -0.27769437 1.0120001
-0.22146061 -0.27851757 1.0150001
-0.21973641 -0.27851757 1.0150001
-0.21801223 -0.27851757 1.0150001
-0.21628803 -0.27851757 1.0150001
-0.21392965 -0.27769437 1.0120001
-0.21221057 -0.27769437 1.0120001
